ply
format ascii 1.0
comment PCL generated
element vertex 1021
property float x
property float y
property float z
element face 0
element camera 1
property float view_px
property float view_py
property float view_pz
property float x_axisx
property float x_axisy
property float x_axisz
property float y_axisx
property float y_axisy
property float y_axisz
property float z_axisx
property float z_axisy
property float z_axisz
property float focal
property float scalex
property float scaley
property float centerx
property float centery
property int viewportx
property int viewporty
property float k1
property float k2
end_header
-0.1625424 -0.42333907 -0.16107409
-0.21754239 -0.41333908 -0.086074084
-0.1675424 -0.38833907 -0.096074089
-0.2125424 -0.42833906 -0.066074088
-0.1975424 -0.41333908 -0.0060740877
0.0024575996 -0.42833906 -0.21607409
0.13745759 -0.42333907 -0.16607408
-0.1475424 -0.42333907 0.14892592
-0.092542402 -0.40333906 0.21392591
-0.0025424003 -0.40333906 0.23392591
0.15245759 -0.40333906 0.11892591
0.032457601 -0.40833905 0.23392591
0.17245761 -0.42833906 -0.14107409
0.21745759 -0.41833907 -0.091074087
0.21745759 -0.39833906 -0.071074091
0.2274576 -0.40333906 -0.056074087
0.23245759 -0.40333906 -0.011074088
0.1824576 -0.39333907 0.063925914
0.2274576 -0.39833906 0.038925912
-0.33254239 -0.14833906 -0.3210741
-0.33754241 -0.088339068 -0.31607407
-0.34754241 -0.073339067 -0.34107408
-0.34254241 -0.083339065 -0.31607407
-0.23754241 -0.22833906 -0.33607408
-0.18754239 -0.23333907 -0.36107409
-0.1625424 -0.22833906 -0.3810741
-0.27254239 -0.21333906 -0.32607409
-0.2475424 -0.15333907 -0.3860741
-0.30754241 -0.10833906 -0.36107409
-0.25254241 -0.12833907 -0.37607408
-0.25254241 -0.13333906 -0.37107408
-0.20254239 -0.19833906 -0.36107409
-0.20254239 -0.18833907 -0.37107408
-0.1775424 -0.20833907 -0.36607409
-0.1625424 -0.21833907 -0.36607409
-0.22254241 -0.11833907 -0.40107408
-0.20254239 -0.068339065 -0.44107407
-0.1675424 -0.11833907 -0.44107407
-0.1775424 -0.10333907 -0.42607409
-0.33754241 -0.053339068 -0.33107409
-0.37254241 0.081660934 -0.3210741
-0.33754241 0.051660933 -0.36607409
-0.27754241 -0.0033390664 -0.4160741
-0.27754241 -0.053339068 -0.3810741
-0.25254241 0.036660932 -0.40607408
-0.26754239 0.066660933 -0.42107409
-0.30754241 0.071660936 -0.3860741
-0.30254239 0.066660933 -0.39107409
-0.22254241 -0.0083390661 -0.4460741
-0.22254241 -0.0033390664 -0.4460741
-0.1675424 -0.033339068 -0.4460741
-0.1675424 0.0066609336 -0.45107409
-0.21754239 0.026660934 -0.42607409
-0.2325424 0.056660935 -0.4160741
-0.1675424 0.046660934 -0.47107407
-0.2625424 0.11166093 -0.40107408
-0.29754239 0.17166093 -0.34607407
-0.27754241 0.16666093 -0.3210741
-0.1825424 0.10666093 -0.4460741
-0.1925424 0.096660934 -0.42107409
-0.2275424 0.11166093 -0.39107409
-0.22254241 0.15666093 -0.36607409
-0.2075424 0.21666093 -0.37607408
-0.1925424 0.19666094 -0.36107409
-0.1825424 0.20666093 -0.36107409
-0.22254241 0.26666093 -0.3210741
-0.17254239 0.26166093 -0.3510741
-0.15754241 0.26166093 -0.32607409
-0.4775424 -0.068339065 0.10392591
-0.49254239 0.011660933 -0.076074086
-0.48754239 -0.053339068 -0.041074086
-0.4775424 -0.018339066 -0.0010740876
-0.4775424 0.031660933 -0.011074088
-0.4775424 -0.053339068 0.10892591
-0.49254239 0.071660936 0.028925912
-0.4825424 0.041660935 0.12892592
-0.3225424 -0.27333906 -0.19107409
-0.34754241 -0.24333906 -0.20107409
-0.3575424 -0.27833906 -0.081074089
-0.32754239 -0.29833907 -0.10607409
-0.33254239 -0.27833906 -0.096074089
-0.37754241 -0.24833907 -0.026074087
-0.33254239 -0.28833908 -0.016074087
-0.4125424 -0.17333907 -0.17107409
-0.43754241 -0.12333906 -0.16607408
-0.42754239 -0.11833907 -0.20607409
-0.40254241 -0.12833907 -0.20107409
-0.36254239 -0.16833907 -0.26607409
-0.33754241 -0.20833907 -0.2610741
-0.3525424 -0.14833906 -0.2910741
-0.37754241 -0.21833907 -0.18607409
-0.3825424 -0.22333907 -0.15607409
-0.36254239 -0.11333907 -0.30107409
-0.37254241 -0.14333907 -0.27107409
-0.36754239 -0.098339066 -0.28107408
-0.4425424 -0.15833907 -0.091074087
-0.40754241 -0.18833907 -0.10607409
-0.42754239 -0.15333907 -0.091074087
-0.4425424 -0.17833906 -0.046074089
-0.4425424 -0.14833906 -0.051074088
-0.43254241 -0.19833906 -0.046074089
-0.42754239 -0.20333907 -0.046074089
-0.42754239 -0.20333907 -0.041074086
-0.39754239 -0.22333907 -0.036074087
-0.4175424 -0.18333906 -0.066074088
-0.42254239 -0.18333906 -0.061074089
-0.46254241 -0.13833907 -0.041074086
-0.23754241 -0.30833906 -0.23607409
-0.23754241 -0.25333905 -0.31107408
-0.2475424 -0.23333907 -0.30107409
-0.2575424 -0.30333906 -0.22607408
-0.1825424 -0.30833906 -0.24607408
-0.1675424 -0.35333908 -0.21107408
-0.1825424 -0.33833906 -0.23107409
-0.21754239 -0.27333906 -0.27607408
-0.2075424 -0.26833907 -0.2860741
-0.2325424 -0.25333905 -0.2860741
-0.1775424 -0.27333906 -0.30107409
-0.23754241 -0.36333907 -0.10107408
-0.27254239 -0.32833907 -0.14107409
-0.2475424 -0.34333906 -0.076074086
-0.26754239 -0.35833907 -0.031074088
-0.2875424 -0.29833907 -0.15107408
-0.2275424 -0.34833908 -0.10107408
-0.2275424 -0.35333908 -0.091074087
-0.17254239 -0.36833906 -0.12607409
-0.29754239 -0.21833907 -0.26607409
-0.31254241 -0.20333907 -0.26607409
-0.33754241 -0.30333906 0.028925912
-0.3225424 -0.29333907 0.053925913
-0.3825424 -0.24833907 0.10392591
-0.3225424 -0.28333905 0.098925911
-0.32754239 -0.27833906 0.10892591
-0.3175424 -0.28833908 0.16392592
-0.33754241 -0.26333907 0.12892592
-0.33754241 -0.22833906 0.20392591
-0.3175424 -0.26333907 0.17392591
-0.33754241 -0.23333907 0.22892591
-0.3175424 -0.23833907 0.24892591
-0.4175424 -0.21333906 0.08392591
-0.40754241 -0.20333907 0.073925912
-0.42754239 -0.18833907 0.10392591
-0.39754239 -0.19333906 0.13392591
-0.42754239 -0.18333906 0.11392591
-0.46754241 -0.07833907 0.043925911
-0.45254239 -0.068339065 0.12392591
-0.45754239 -0.10333907 0.12892592
-0.46254241 -0.07833907 0.15392591
-0.4125424 -0.10833906 0.20392591
-0.43254241 -0.088339068 0.17392591
-0.42254239 -0.07833907 0.20392591
-0.42254239 -0.083339065 0.23392591
-0.36754239 -0.21833907 0.19892591
-0.37254241 -0.18833907 0.22892591
-0.39254239 -0.16833907 0.17892592
-0.3825424 -0.16833907 0.20392591
-0.3525424 -0.21333906 0.23392591
-0.34754241 -0.19333906 0.23892592
-0.3575424 -0.18333906 0.25892591
-0.32754239 -0.20833907 0.24892591
-0.3175424 -0.19333906 0.26892591
-0.33254239 -0.15333907 0.28392592
-0.34754241 -0.12333906 0.28892592
-0.33754241 -0.11333907 0.30892593
-0.32754239 -0.10833906 0.31892592
-0.31254241 -0.32333907 0.013925913
-0.29754239 -0.30833906 0.073925912
-0.2625424 -0.33833906 0.043925911
-0.30254239 -0.31833908 0.11392591
-0.30254239 -0.29333907 0.12392591
-0.21754239 -0.35333908 0.10392591
-0.1975424 -0.38333908 0.12392591
-0.2325424 -0.35833907 0.13392591
-0.1675424 -0.36833906 0.13392591
-0.2425424 -0.32333907 0.20392591
-0.30754241 -0.24833907 0.21392591
-0.25254241 -0.29833907 0.23892592
-0.25254241 -0.27333906 0.23892592
-0.29754239 -0.23333907 0.25392592
-0.2425424 -0.25333905 0.27892593
-0.27254239 -0.24333906 0.28892592
-0.23754241 -0.24833907 0.29392591
-0.23754241 -0.24833907 0.31392592
-0.1925424 -0.36333907 0.16892591
-0.15754241 -0.37333906 0.18392591
-0.15754241 -0.35333908 0.18892591
-0.1775424 -0.32833907 0.25392592
-0.2325424 -0.28833908 0.2739259
-0.22254241 -0.27833906 0.26392591
-0.1975424 -0.28333905 0.2739259
-0.2275424 -0.25333905 0.31892592
-0.2325424 -0.23833907 0.30892593
-0.1925424 -0.24833907 0.32392591
-0.31254241 -0.20833907 0.28892592
-0.31254241 -0.14833906 0.30892593
-0.39754239 -0.028339066 -0.2610741
-0.46254241 -0.043339066 -0.17607409
-0.40254241 0.046660934 -0.2910741
-0.4175424 0.016660934 -0.23607409
-0.39754239 0.071660936 -0.2610741
-0.40254241 0.081660934 -0.24107409
-0.3575424 0.086660936 -0.30107409
-0.47254241 -0.048339065 -0.056074087
-0.46254241 0.056660935 -0.10107408
-0.46754241 0.071660936 -0.061074089
-0.42254239 0.13666093 -0.20607409
-0.42754239 0.13666093 -0.19107409
-0.40754241 0.13666093 -0.17107409
-0.4175424 0.18166094 -0.16607408
-0.40254241 0.20666093 -0.17107409
-0.36254239 0.14666094 -0.24107409
-0.36254239 0.15166093 -0.24107409
-0.39254239 0.12666093 -0.21607409
-0.36254239 0.19166094 -0.2560741
-0.36754239 0.19666094 -0.23607409
-0.3825424 0.17666094 -0.17607409
-0.3225424 0.22166093 -0.22107409
-0.45254239 0.13166094 -0.13107409
-0.46254241 0.13166094 -0.086074084
-0.46254241 0.13166094 -0.081074089
-0.4425424 0.15166093 -0.14107409
-0.42254239 0.12666093 -0.14607409
-0.47254241 0.11666093 -0.061074089
-0.46254241 0.15166093 -0.0060740877
-0.42754239 0.15666093 -0.041074086
-0.4175424 0.20166093 -0.12607409
-0.4175424 0.20666093 -0.11607409
-0.39754239 0.20666093 -0.026074087
-0.39754239 0.21166094 -0.031074088
-0.42254239 0.21666093 -0.061074089
-0.3825424 0.24666093 -0.14107409
-0.36754239 0.23666093 -0.10107408
-0.36754239 0.24666093 -0.061074089
-0.28254241 0.17666094 -0.31107408
-0.2425424 0.24666093 -0.28107408
-0.46754241 -0.058339067 0.078925915
-0.46754241 -0.063339069 0.14392591
-0.4475424 -0.053339068 0.14892592
-0.45254239 0.0016609335 0.15392591
-0.47254241 0.041660935 0.058925912
-0.4475424 0.036660932 0.16392592
-0.45754239 0.056660935 0.12892592
-0.46754241 0.0016609335 0.17392591
-0.4425424 -0.018339066 0.22892591
-0.4475424 0.051660933 0.16892591
-0.4175424 0.091660932 0.25392592
-0.3875424 0.081660934 0.3039259
-0.36754239 0.071660936 0.29892591
-0.47254241 0.11666093 0.078925915
-0.45254239 0.17166093 0.013925913
-0.43754241 0.19166094 0.06892591
-0.40254241 0.24666093 0.013925913
-0.40754241 0.17666094 0.093925916
-0.4125424 0.19666094 0.15392591
-0.40254241 0.20666093 0.15892591
-0.37754241 0.23166093 0.053925913
-0.3525424 0.23166093 0.15392591
-0.4175424 0.13166094 0.21392591
-0.39754239 0.10166094 0.27892593
-0.37254241 0.10166094 0.2739259
-0.37254241 0.11666093 0.25892591
-0.3875424 0.14666094 0.25892591
-0.34754241 0.14666094 0.25892591
-0.37754241 0.18166094 0.16892591
-0.33254239 0.19666094 0.23392591
-0.33254239 0.20166093 0.22892591
-0.33754241 0.23666093 0.23392591
-0.3225424 0.19166094 0.25392592
-0.30754241 0.12166093 0.32392591
-0.30254239 0.13166094 0.32392591
-0.30754241 0.20166093 0.26892591
-0.1825424 -0.23333907 0.34392592
-0.17254239 -0.25333905 0.32892591
-0.27754241 -0.16333906 0.3389259
-0.31254241 -0.14333907 0.3389259
-0.28254241 -0.10833906 0.35892591
-0.2625424 -0.12833907 0.38892591
-0.23754241 -0.14333907 0.37892592
-0.15754241 -0.20833907 0.37392592
-0.1925424 -0.15333907 0.39392591
-0.21754239 -0.083339065 0.40892592
-0.20254239 -0.10333907 0.41392592
-0.1975424 -0.073339067 0.42392591
-0.1675424 -0.13833907 0.41392592
-0.1925424 -0.093339063 0.43892592
-0.36254239 -0.048339065 0.3339259
-0.34254241 -0.028339066 0.35892591
-0.32754239 -0.058339067 0.3639259
-0.34254241 -0.013339067 0.35892591
-0.33754241 0.021660933 0.3689259
-0.32754239 0.11666093 0.34892592
-0.3225424 0.12666093 0.34892592
-0.30754241 -0.063339069 0.35392591
-0.30754241 -0.013339067 0.39392591
-0.2875424 -0.0033390664 0.40892592
-0.2425424 -0.048339065 0.40892592
-0.23754241 0.0066609336 0.43892592
-0.30254239 0.021660933 0.3989259
-0.31254241 0.061660934 0.35892591
-0.30254239 0.066660933 0.39392591
-0.26754239 0.021660933 0.39392591
-0.26754239 0.046660934 0.41892591
-0.22254241 -0.038339067 0.41892591
-0.2125424 -0.063339069 0.41892591
-0.20254239 0.0066609336 0.43392593
-0.15754241 -0.033339068 0.46892592
-0.18754239 0.076660931 0.43392593
-0.18754239 0.056660935 0.4589259
-0.27754241 0.096660934 0.3989259
-0.30754241 0.17666094 0.32892591
-0.1975424 0.12666093 0.3989259
-0.22254241 0.19666094 0.37892592
-0.1775424 0.22166093 0.34892592
-0.18754239 0.24666093 0.35892591
-0.3225424 0.28666094 -0.18607409
-0.37754241 0.26666093 -0.096074089
-0.33754241 0.27666092 -0.076074086
-0.3825424 0.27166092 -0.046074089
-0.36754239 0.25666094 -0.021074088
-0.34754241 0.27166092 -0.056074087
-0.31254241 0.25666094 -0.24607408
-0.23754241 0.27166092 -0.2610741
-0.30254239 0.28666094 -0.21107408
-0.27254239 0.30166093 -0.23107409
-0.27254239 0.29666093 -0.18107408
-0.2425424 0.35166094 -0.17107409
-0.2275424 0.26666093 -0.27607408
-0.22254241 0.29166093 -0.24607408
-0.2125424 0.32666093 -0.24607408
-0.1675424 0.28666094 -0.2910741
-0.21754239 0.32166094 -0.21107408
-0.2075424 0.34666094 -0.16607408
-0.15754241 0.37166095 -0.16107409
-0.27254239 0.33166093 -0.10107408
-0.29754239 0.32166094 -0.036074087
-0.2925424 0.32666093 -0.016074087
-0.2425424 0.36166093 -0.13607408
-0.2625424 0.33666092 -0.11107409
-0.25254241 0.34666094 -0.086074084
-0.30254239 0.34666094 -0.0010740876
-0.27254239 0.36166093 -0.021074088
-0.2275424 0.34166095 -0.14607409
-0.2275424 0.38166094 -0.096074089
-0.1625424 0.41166094 -0.091074087
-0.1925424 0.38166094 -0.036074087
-0.1625424 0.39666092 -0.041074086
-0.3575424 0.30166093 0.013925913
-0.33254239 0.32166094 0.043925911
-0.33254239 0.31166095 0.08392591
-0.3575424 0.28666094 0.10392591
-0.36754239 0.26666093 0.12892592
-0.32754239 0.26166093 0.21892591
-0.3175424 0.25666094 0.23392591
-0.2925424 0.32166094 0.058925912
-0.26754239 0.31166095 0.15892591
-0.23754241 0.36166093 0.033925913
-0.2575424 0.34666094 0.063925914
-0.27254239 0.33666092 0.06892591
-0.26754239 0.36166093 0.073925912
-0.2425424 0.34666094 0.10892591
-0.2425424 0.34666094 0.11392591
-0.2125424 0.37666094 0.13892591
-0.1675424 0.37166095 0.14392591
-0.15754241 0.40666094 0.11892591
-0.1775424 0.39166093 0.13892591
-0.31254241 0.26166093 0.23892592
-0.27254239 0.30666092 0.21892591
-0.2625424 0.33666092 0.16892591
-0.1925424 0.33166093 0.20892592
-0.18754239 0.28166094 0.28392592
-0.1925424 0.32666093 0.26892591
-0.1675424 0.31666094 0.29892591
-0.15754241 0.35666093 0.23892592
-0.1175424 -0.30833906 -0.31607407
-0.14254241 -0.25833908 -0.33607408
-0.097542398 -0.30333906 -0.3210741
-0.062542401 -0.23333907 -0.40107408
-0.042542402 -0.27833906 -0.36607409
-0.0525424 -0.24833907 -0.39107409
-0.047542401 -0.083339065 -0.48107409
-0.097542398 -0.21333906 -0.4110741
-0.097542398 -0.10333907 -0.45107409
-0.097542398 -0.083339065 -0.47107407
-0.042542402 -0.19333906 -0.4160741
0.047457598 -0.24333906 -0.39607409
0.0374576 -0.23333907 -0.3860741
0.047457598 -0.28833908 -0.32607409
0.0574576 -0.28833908 -0.33107409
0.077457599 -0.25833908 -0.35607409
0.1124576 -0.30333906 -0.31607407
0.13745759 -0.29333907 -0.32607409
0.1324576 -0.26333907 -0.35607409
0.052457601 -0.16333906 -0.4460741
0.15245759 -0.20833907 -0.40107408
0.1124576 -0.11333907 -0.46107408
0.0924576 -0.098339066 -0.45107409
-0.12754241 -0.018339066 -0.48107409
-0.14254241 0.031660933 -0.48107409
-0.0325424 -0.033339068 -0.49607408
-0.012542401 -0.038339067 -0.49107409
-0.017542399 0.011660933 -0.48107409
-0.057542399 0.036660932 -0.4760741
-0.1375424 -0.063339069 -0.45107409
-0.097542398 -0.043339066 -0.46607408
-0.097542398 0.091660932 -0.45607409
-0.1175424 0.10166094 -0.47107407
-0.1125424 0.15166093 -0.4460741
-0.097542398 0.16166094 -0.4160741
-0.1475424 0.18666093 -0.42107409
-0.1525424 0.24166094 -0.34107408
-0.077542402 0.24666093 -0.36607409
-0.0075424002 0.10666093 -0.45607409
-0.047542401 0.19166094 -0.44107407
-0.037542399 0.24166094 -0.4110741
-0.027542401 0.19666094 -0.44107407
0.0274576 -0.058339067 -0.49107409
0.032457601 -0.033339068 -0.49607408
0.0124576 0.056660935 -0.4760741
0.032457601 0.071660936 -0.49107409
0.062457599 0.031660933 -0.4760741
0.047457598 0.051660933 -0.4760741
0.047457598 0.061660934 -0.49607408
0.1224576 -0.028339066 -0.48107409
0.062457599 0.056660935 -0.47107407
0.1174576 -0.023339067 -0.46107408
0.1624576 -0.043339066 -0.46607408
0.15245759 -0.043339066 -0.45107409
0.15245759 -0.038339067 -0.45107409
0.1474576 -0.033339068 -0.45107409
0.087457597 0.016660934 -0.47107407
0.15245759 0.076660931 -0.47107407
0.15245759 0.091660932 -0.46607408
0.0274576 0.14166093 -0.46607408
0.1224576 0.12166093 -0.43607408
0.13745759 0.11166093 -0.43607408
0.15245759 0.10166094 -0.46107408
0.1274576 0.21166094 -0.37607408
0.1624576 0.21666093 -0.36107409
0.17245761 -0.25833908 -0.3210741
0.1674576 -0.23833907 -0.34607407
0.1974576 -0.24333906 -0.32607409
0.2074576 -0.26333907 -0.3210741
0.25245759 -0.23333907 -0.3210741
0.25745761 -0.23333907 -0.31607407
0.1924576 -0.17333907 -0.40107408
0.1924576 -0.15333907 -0.39607409
0.2224576 -0.16333906 -0.39607409
0.1824576 -0.14333907 -0.40607408
0.1924576 -0.12833907 -0.4110741
0.1924576 -0.088339068 -0.44107407
0.2274576 -0.088339068 -0.42607409
0.25245759 -0.15333907 -0.36107409
0.26245761 -0.10833906 -0.39607409
0.27745759 -0.073339067 -0.40107408
0.28245759 -0.14333907 -0.34607407
0.29245761 -0.073339067 -0.36607409
0.32245761 -0.07833907 -0.34107408
0.35245761 -0.07833907 -0.33107409
0.25245759 -0.048339065 -0.40107408
0.32245761 -0.043339066 -0.37107408
0.31745759 -0.0033390664 -0.3860741
0.26245761 0.041660935 -0.39607409
0.2674576 0.021660933 -0.42107409
0.31245759 0.076660931 -0.3810741
0.32245761 0.071660936 -0.34607407
0.1674576 0.13166094 -0.44107407
0.1824576 0.17166093 -0.4110741
0.2124576 0.10666093 -0.43107408
0.18745761 0.14666094 -0.39107409
0.1924576 0.17666094 -0.40607408
0.20245761 0.17666094 -0.40107408
0.21745759 0.19666094 -0.3810741
0.21745759 0.21666093 -0.33107409
0.24745759 0.13166094 -0.40107408
0.2674576 0.11666093 -0.39607409
0.31745759 0.10166094 -0.36607409
0.2724576 0.20166093 -0.34107408
0.28245759 0.22166093 -0.31607407
0.34745759 -0.058339067 -0.3210741
0.34245759 0.051660933 -0.33107409
0.32745761 0.071660936 -0.34107408
0.38745761 0.026660934 -0.31607407
-0.12754241 0.27166092 -0.36607409
-0.1375424 0.27166092 -0.3210741
-0.12754241 0.27666092 -0.3210741
-0.1025424 0.27166092 -0.33607408
-0.042542402 0.28666094 -0.36607409
-0.0525424 0.27166092 -0.34607407
-0.0075424002 0.26166093 -0.36107409
-0.0325424 0.29666093 -0.36107409
0.0224576 0.27666092 -0.3810741
0.017457599 0.28666094 -0.37107408
0.042457599 0.28166094 -0.33607408
0.087457597 0.27666092 -0.33607408
0.1124576 0.28666094 -0.3210741
0.15745761 0.27166092 -0.3510741
0.1474576 0.29166093 -0.33107409
0.15245759 0.30166093 -0.3210741
0.20245761 0.25666094 -0.34607407
0.1974576 0.28666094 -0.31607407
-0.12754241 -0.34333906 -0.22607408
-0.1025424 -0.36833906 -0.22607408
-0.1125424 -0.35333908 -0.21607409
-0.1075424 -0.34833908 -0.22107409
-0.0875424 -0.37833905 -0.18107408
-0.067542404 -0.32833907 -0.28107408
-0.0525424 -0.33833906 -0.26607409
-0.072542399 -0.37333906 -0.23107409
-0.0225424 -0.37833905 -0.20107409
-0.017542399 -0.37333906 -0.20607409
0.0124576 -0.34333906 -0.2910741
0.042457599 -0.30833906 -0.30607408
0.047457598 -0.35833907 -0.26607409
0.072457597 -0.36833906 -0.23607409
0.052457601 -0.33833906 -0.2910741
0.077457599 -0.30833906 -0.30107409
0.062457599 -0.37333906 -0.19607408
0.082457602 -0.37333906 -0.18607409
0.072457597 -0.29833907 -0.31107408
0.1224576 -0.32333907 -0.2910741
0.13745759 -0.32833907 -0.27607408
0.1274576 -0.30833906 -0.28107408
0.1474576 -0.32333907 -0.27607408
0.15745761 -0.35833907 -0.21107408
0.15745761 -0.35333908 -0.18107408
0.1424576 -0.30333906 -0.28107408
-0.1375424 -0.32833907 0.24392591
-0.0875424 -0.34833908 0.22892591
-0.1375424 -0.33833906 0.26392591
-0.057542399 -0.32333907 0.28392592
-0.047542401 -0.31333905 0.32392591
-0.0075424002 -0.34833908 0.25392592
-0.0225424 -0.33833906 0.29392591
0.0374576 -0.37333906 0.23892592
0.0274576 -0.36333907 0.21892591
0.0074575995 -0.32833907 0.30892593
0.0274576 -0.29833907 0.31892592
0.1124576 -0.37833905 0.20392591
0.1424576 -0.32833907 0.24392591
0.1124576 -0.30833906 0.31392592
0.1174576 -0.29833907 0.29892591
0.1324576 -0.28833908 0.30892593
0.1674576 -0.34833908 -0.18607409
0.20245761 -0.31333905 -0.22607408
0.2124576 -0.33333907 -0.21607409
0.2374576 -0.30833906 -0.23107409
0.1674576 -0.29333907 -0.28107408
0.20245761 -0.27333906 -0.2910741
0.2124576 -0.30333906 -0.2610741
0.2124576 -0.29833907 -0.23607409
0.2124576 -0.27833906 -0.26607409
0.25245759 -0.32833907 -0.17607409
0.2724576 -0.23833907 -0.29607409
0.24745759 -0.26333907 -0.2610741
0.28745759 -0.22833906 -0.29607409
0.20245761 -0.38333908 -0.10607409
0.20245761 -0.36333907 -0.091074087
0.21745759 -0.34833908 -0.11607409
0.2074576 -0.35833907 -0.096074089
0.2274576 -0.36833906 -0.096074089
0.2124576 -0.34333906 -0.15107408
0.23245759 -0.38333908 0.0039259125
0.25745761 -0.34833908 -0.10107408
0.26245761 -0.34833908 -0.10107408
0.25745761 -0.35333908 -0.081074089
0.2674576 -0.33333907 -0.13607408
0.28745759 -0.30833906 -0.10107408
0.27745759 -0.32833907 -0.051074088
0.25745761 -0.34333906 0.0039259125
0.31245759 -0.32333907 -0.056074087
0.29745761 -0.28833908 -0.15107408
0.2674576 -0.22333907 -0.29607409
0.31245759 -0.20333907 -0.29607409
0.29245761 -0.18333906 -0.30607408
0.32745761 -0.25833908 -0.19607408
0.3374576 -0.23833907 -0.22607408
0.35745761 -0.25833908 -0.15607409
0.34745759 -0.27833906 -0.10607409
0.3624576 -0.23833907 -0.13107409
0.3674576 -0.23833907 -0.11607409
0.38245761 -0.24833907 -0.10607409
0.3624576 -0.27833906 -0.056074087
0.35245761 -0.18833907 -0.23607409
0.3674576 -0.21333906 -0.21607409
0.37245759 -0.20833907 -0.20607409
0.37245759 -0.21333906 -0.20107409
0.3674576 -0.22333907 -0.18607409
0.37745759 -0.19333906 -0.18107408
0.34245759 -0.13833907 -0.2860741
0.37745759 -0.073339067 -0.28107408
0.40745759 -0.17833906 -0.18107408
0.41245759 -0.088339068 -0.24607408
0.4274576 -0.10833906 -0.20607409
0.3974576 -0.21333906 -0.14107409
0.3974576 -0.22333907 -0.0060740877
0.41745761 -0.19333906 -0.12107409
0.41245759 -0.16333906 -0.14607409
0.41745761 -0.16333906 -0.12607409
0.4324576 -0.15833907 -0.14607409
0.4574576 -0.15333907 -0.021074088
0.44745761 -0.10333907 -0.10607409
0.47745761 -0.068339065 -0.10607409
0.4574576 -0.10833906 -0.056074087
0.4624576 -0.088339068 -0.046074089
0.2374576 -0.35833907 0.10892591
0.2424576 -0.35833907 0.11392591
0.2374576 -0.35833907 0.11892591
0.2374576 -0.35333908 0.13392591
0.2674576 -0.35833907 0.008925912
0.28745759 -0.34333906 0.018925913
0.29745761 -0.31833908 0.048925914
0.25245759 -0.33333907 0.10892591
0.2674576 -0.34333906 0.11392591
0.1824576 -0.36333907 0.17892592
0.1924576 -0.33833906 0.18392591
0.2424576 -0.30833906 0.19392592
0.17245761 -0.30333906 0.29392591
0.1924576 -0.26833907 0.29892591
0.25245759 -0.29333907 0.20392591
0.29745761 -0.27333906 0.18392591
0.3074576 -0.27833906 0.19892591
0.3074576 -0.27833906 0.20392591
0.3024576 -0.26333907 0.20392591
0.31245759 -0.25833908 0.22392592
0.3074576 -0.24833907 0.21392591
0.27745759 -0.24333906 0.28892592
0.28745759 -0.24833907 0.2739259
0.28745759 -0.23333907 0.28892592
0.3024576 -0.20833907 0.27892593
0.31245759 -0.21333906 0.28392592
0.32245761 -0.21833907 0.26892591
0.32245761 -0.21833907 0.2739259
0.32745761 -0.29333907 0.043925911
0.3624576 -0.27333906 0.098925911
0.34745759 -0.26333907 0.10392591
0.32745761 -0.23333907 0.21392591
0.3374576 -0.22833906 0.23892592
0.40245759 -0.21333906 0.048925914
0.40745759 -0.20833907 0.11392591
0.41245759 -0.16333906 0.13392591
0.4274576 -0.16333906 0.14392591
0.44745761 -0.12833907 0.048925914
0.45245761 -0.11333907 0.078925915
0.4624576 -0.12333906 0.073925912
0.4324576 -0.11333907 0.15892591
0.4574576 -0.098339066 0.14892592
0.37745759 -0.18333906 0.19392592
0.3324576 -0.17333907 0.29892591
0.3974576 -0.12833907 0.21892591
0.35745761 -0.13333906 0.2739259
0.37245759 -0.12333906 0.25892591
0.43745759 -0.11333907 0.18392591
0.4274576 -0.068339065 0.19392592
0.40745759 -0.07833907 0.23392591
0.21745759 0.23666093 -0.31107408
0.2674576 0.20666093 -0.29607409
0.31745759 0.25166094 -0.18607409
0.38245761 -0.058339067 -0.30607408
0.3974576 -0.023339067 -0.26607409
0.37245759 0.016660934 -0.30107409
0.38245761 0.051660933 -0.2860741
0.40245759 0.026660934 -0.29607409
0.3974576 0.081660934 -0.24607408
0.41245759 -0.058339067 -0.26607409
0.41245759 -0.0083390661 -0.24107409
0.44245759 0.0066609336 -0.22607408
0.4574576 -0.038339067 -0.18107408
0.41745761 0.036660932 -0.27107409
0.44245759 0.031660933 -0.23107409
0.4624576 0.026660934 -0.18607409
0.47745761 -0.058339067 -0.10607409
0.47245759 -0.028339066 -0.081074089
0.45245761 -0.0083390661 -0.15107408
0.47745761 0.011660933 -0.056074087
0.47745761 -0.0083390661 0.0039259125
0.47745761 0.0016609335 -0.021074088
0.47245759 0.036660932 -0.086074084
0.35745761 0.14166093 -0.30107409
0.3624576 0.14666094 -0.23607409
0.37245759 0.10166094 -0.31107408
0.37745759 0.096660934 -0.27107409
0.40245759 0.10666093 -0.26607409
0.3624576 0.15666093 -0.22607408
0.37245759 0.15666093 -0.21107408
0.37745759 0.15666093 -0.20107409
0.34245759 0.18166094 -0.2860741
0.32745761 0.23666093 -0.19107409
0.3974576 0.18666093 -0.20107409
0.37245759 0.22166093 -0.20107409
0.37245759 0.23166093 -0.19607408
0.40745759 0.13166094 -0.24107409
0.4324576 0.11166093 -0.20107409
0.4274576 0.10666093 -0.17107409
0.41245759 0.15666093 -0.20107409
0.35745761 0.24666093 -0.096074089
0.3924576 0.19166094 -0.12107409
0.38745761 0.21166094 -0.086074084
0.41745761 0.14666094 -0.12607409
0.44245759 0.14166093 -0.15107408
0.43745759 0.16166094 -0.13107409
0.42245761 0.16666093 -0.046074089
0.4324576 0.14666094 -0.031074088
0.44245759 0.13666093 -0.0060740877
0.48245761 0.096660934 -0.046074089
0.4624576 0.15166093 -0.011074088
0.45245761 0.17166093 0.0039259125
0.4324576 0.18666093 -0.10607409
0.4274576 0.21166094 0.0039259125
0.29745761 0.17666094 0.29392591
0.47245759 -0.038339067 0.033925913
0.47745761 -0.028339066 0.12392591
0.47245759 -0.053339068 0.13392591
0.46745759 -0.053339068 0.14392591
0.46745759 -0.013339067 0.093925916
0.47245759 0.061660934 0.043925911
0.48245761 0.016660934 0.12892592
0.48245761 0.021660933 0.12892592
0.45245761 0.061660934 0.13892591
0.37745759 -0.038339067 0.28892592
0.34745759 0.081660934 0.31392592
0.3924576 0.061660934 0.26892591
0.37245759 0.061660934 0.29392591
0.44245759 -0.063339069 0.20892592
0.4274576 0.0066609336 0.21892591
0.44745761 -0.063339069 0.20392591
0.4274576 -0.013339067 0.25892591
0.4324576 0.031660933 0.20892592
0.41745761 0.086660936 0.20892592
0.43745759 0.056660935 0.23392591
0.41245759 0.046660934 0.27892593
0.42245761 0.041660935 0.26892591
0.40745759 0.076660931 0.27892593
0.38745761 0.22166093 0.078925915
0.3974576 0.24666093 0.08392591
0.3674576 0.23166093 0.10892591
0.40245759 0.23666093 0.098925911
0.47745761 0.11166093 0.023925912
0.48245761 0.096660934 0.053925913
0.46745759 0.14166093 0.038925912
0.4624576 0.14666094 0.048925914
0.44745761 0.16666093 0.078925915
0.45245761 0.15166093 0.10392591
0.41245759 0.19166094 0.033925913
0.44245759 0.18166094 0.073925912
0.4274576 0.21166094 0.06892591
0.41745761 0.21666093 0.10392591
0.35745761 0.13166094 0.30892593
0.34745759 0.14166093 0.30892593
0.35745761 0.21166094 0.17392591
0.35245761 0.18166094 0.22392592
0.35245761 0.21666093 0.23892592
0.38745761 0.21166094 0.19392592
0.41245759 0.11166093 0.24392591
0.40745759 0.12666093 0.23892592
-0.1375424 -0.22833906 0.3689259
-0.092542402 -0.24833907 0.3639259
-0.1075424 -0.22833906 0.3989259
-0.092542402 -0.24333906 0.38892591
-0.067542404 -0.22833906 0.38392591
-0.0325424 -0.29833907 0.3389259
-0.1475424 -0.20333907 0.38392591
-0.14254241 -0.14833906 0.41892591
-0.1225424 -0.16333906 0.43392593
-0.1125424 -0.17333907 0.41392592
-0.1125424 -0.15333907 0.42392591
-0.1225424 -0.12833907 0.44892591
-0.092542402 -0.12333906 0.4589259
-0.0325424 -0.18833907 0.42392591
-0.0025424003 -0.18833907 0.42392591
-0.067542404 -0.10833906 0.45392591
-0.0525424 -0.12333906 0.44892591
-0.0525424 -0.093339063 0.4589259
0.0024575996 -0.12333906 0.45392591
-0.017542399 -0.083339065 0.46892592
0.047457598 -0.24333906 0.3989259
0.042457599 -0.19333906 0.43392593
0.062457599 -0.16833907 0.44392592
0.047457598 -0.10333907 0.47392592
0.062457599 -0.07833907 0.4639259
0.1024576 -0.21833907 0.38392591
0.1274576 -0.19833906 0.39392591
0.1474576 -0.22333907 0.3689259
0.1474576 -0.21333906 0.37392592
0.087457597 -0.16833907 0.43892592
0.15745761 -0.14833906 0.4289259
0.1624576 -0.13333906 0.41892591
-0.1375424 -0.013339067 0.4589259
-0.14254241 -0.0083390661 0.47892591
-0.12754241 -0.018339066 0.4589259
-0.0075424002 0.051660933 0.49892592
-0.1125424 0.096660934 0.47392592
-0.092542402 0.10666093 0.44892591
-0.1525424 0.24166094 0.38392591
-0.1025424 0.24166094 0.3989259
-0.0875424 0.24666093 0.39392591
-0.1375424 0.18666093 0.42392591
-0.067542404 0.13166094 0.4639259
-0.062542401 0.11666093 0.47392592
-0.042542402 0.13166094 0.46892592
-0.0225424 0.12666093 0.44392592
-0.027542401 0.10166094 0.4589259
-0.027542401 0.24166094 0.37392592
-0.067542404 0.18666093 0.43892592
-0.0525424 0.18666093 0.44392592
-0.042542402 0.18166094 0.44392592
-0.037542399 0.23666093 0.41392592
-0.027542401 0.18166094 0.41392592
-0.0225424 0.19166094 0.44392592
-0.017542399 0.20166093 0.43392593
0.0274576 0.0066609336 0.47892591
0.052457601 -0.028339066 0.47392592
0.047457598 0.011660933 0.47892591
0.0074575995 0.076660931 0.47392592
0.1474576 -0.0083390661 0.47392592
0.1624576 0.016660934 0.44892591
0.0074575995 -0.028339066 0.4939259
0.0124576 0.036660932 0.49892592
0.0374576 0.041660935 0.49892592
0.052457601 0.12166093 0.44392592
0.017457599 0.25166094 0.3689259
0.077457599 0.24666093 0.3989259
0.042457599 0.18666093 0.40892592
0.0074575995 0.23166093 0.41892591
0.0124576 0.21666093 0.4289259
0.0374576 0.23166093 0.41392592
0.052457601 0.19166094 0.43892592
0.13745759 0.096660934 0.44392592
0.15245759 0.12666093 0.44892591
0.1474576 0.16166094 0.43392593
0.1074576 0.22166093 0.37892592
0.1474576 0.24666093 0.34392592
0.1324576 0.21666093 0.37392592
0.1024576 0.21166094 0.41892591
0.1774576 -0.26333907 0.3389259
0.1774576 -0.24833907 0.35392591
0.1824576 -0.23833907 0.3639259
0.1924576 -0.21833907 0.35392591
0.18745761 -0.20333907 0.38392591
0.21745759 -0.17833906 0.3639259
0.2274576 -0.15333907 0.37892592
0.1924576 -0.16333906 0.40892592
0.20245761 -0.14333907 0.39392591
0.1774576 -0.11833907 0.43892592
0.2224576 -0.093339063 0.42392591
0.2124576 -0.093339063 0.4289259
0.2074576 -0.073339067 0.41892591
0.23245759 -0.083339065 0.42392591
0.2374576 -0.073339067 0.42392591
0.2724576 -0.15333907 0.34392592
0.2674576 -0.15333907 0.37392592
0.27745759 -0.13833907 0.34892592
0.28245759 -0.11333907 0.37892592
0.31745759 -0.068339065 0.34392592
0.29245761 -0.088339068 0.38392591
0.1924576 -0.043339066 0.43392593
0.20245761 -0.033339068 0.44892591
0.1774576 0.046660934 0.44392592
0.1824576 0.016660934 0.4639259
0.20245761 0.091660932 0.41892591
0.23245759 0.026660934 0.41892591
0.2074576 0.036660932 0.45392591
0.2074576 0.076660931 0.42392591
0.23245759 0.066660933 0.41392592
0.27745759 0.026660934 0.41892591
0.20245761 0.12166093 0.40392593
0.1924576 0.13666093 0.39392591
0.18745761 0.15666093 0.38392591
0.2424576 0.13166094 0.3689259
0.2224576 0.16666093 0.3639259
0.1774576 0.20666093 0.35892591
0.2274576 0.23166093 0.35392591
0.2274576 0.24166094 0.3389259
0.3024576 0.15166093 0.35392591
0.34245759 -0.013339067 0.3339259
0.34745759 0.021660933 0.3339259
-0.1525424 0.31666094 -0.30107409
-0.1125424 0.29166093 -0.31107408
-0.077542402 0.30666092 -0.31107408
-0.1175424 0.34666094 -0.28107408
-0.1525424 0.36666092 -0.17607409
-0.14254241 0.40166092 -0.15607409
-0.1325424 0.38666093 -0.19107409
-0.1225424 0.39666092 -0.18107408
-0.0875424 0.39666092 -0.20607409
-0.017542399 0.39666092 -0.17107409
-0.1475424 0.39166093 -0.10607409
-0.14254241 0.39666092 -0.10607409
-0.12754241 0.40666094 -0.076074086
-0.1075424 0.41166094 -0.15107408
-0.097542398 0.40166092 -0.11607409
-0.077542402 0.41166094 0.0039259125
-0.067542404 0.40666094 -0.13107409
-0.082542397 0.42166093 -0.12607409
-0.092542402 0.42666093 -0.10607409
-0.067542404 0.42166093 -0.14107409
-0.037542399 0.42166093 -0.091074087
0.0024575996 0.42666093 -0.11607409
0.017457599 0.31666094 -0.30607408
0.0074575995 0.40166092 -0.16607408
0.072457597 0.40666094 -0.18107408
0.1474576 0.30166093 -0.2860741
0.1224576 0.34166095 -0.28107408
0.087457597 0.36166093 -0.22607408
0.1424576 0.35666093 -0.20607409
0.1474576 0.35166094 -0.21107408
0.0274576 0.36166093 -0.011074088
0.0574576 0.41166094 -0.046074089
0.052457601 0.37666094 -0.0010740876
0.1174576 0.40666094 -0.041074086
0.0124576 0.42166093 -0.15107408
0.077457599 0.42666093 -0.081074089
0.077457599 0.42166093 -0.066074088
0.0924576 0.41666093 -0.15107408
0.0924576 0.42666093 -0.081074089
-0.0025424003 0.37166095 0.048925914
-0.0325424 0.39166093 0.078925915
-0.14254241 0.32666093 0.25892591
-0.092542402 0.28666094 0.32392591
-0.12754241 0.36666092 0.19392592
-0.14254241 0.39166093 0.17892592
-0.092542402 0.37166095 0.24392591
-0.12754241 0.35666093 0.25392592
-0.072542399 0.32666093 0.31892592
-0.037542399 0.30666092 0.31392592
-0.027542401 0.32666093 0.29392591
-0.0025424003 0.31666094 0.3039259
-0.047542401 0.39166093 0.17392591
-0.0525424 0.37666094 0.25392592
-0.0325424 0.35666093 0.24892591
-0.1125424 0.42666093 0.078925915
0.062457599 0.38166094 0.018925913
0.062457599 0.39666092 0.06892591
0.097457603 0.40166092 0.013925913
0.15245759 0.40166092 0.023925912
0.1624576 0.37666094 0.13392591
0.0224576 0.33166093 0.28892592
0.062457599 0.29166093 0.32392591
0.0574576 0.31166095 0.30892593
0.067457601 0.29666093 0.31892592
0.047457598 0.39166093 0.17892592
0.0074575995 0.35666093 0.24892591
0.1224576 0.28166094 0.31392592
0.1224576 0.32666093 0.26892591
0.097457603 0.30166093 0.3039259
0.15245759 0.31166095 0.30892593
0.1174576 0.36166093 0.20392591
0.1124576 0.34666094 0.23892592
0.1074576 0.38666093 0.21392591
0.13745759 0.36166093 0.23892592
0.15245759 0.33666092 0.23392591
0.0374576 0.42166093 0.14892592
0.052457601 0.42666093 0.13392591
0.13745759 0.42666093 0.043925911
0.1474576 0.42166093 0.063925914
0.1074576 0.42166093 0.12892592
0.1774576 0.31166095 -0.29607409
0.2274576 0.31166095 -0.2610741
0.1824576 0.33666092 -0.21607409
0.18745761 0.33666092 -0.21107408
0.26245761 0.25666094 -0.29607409
0.29745761 0.26166093 -0.2560741
0.26245761 0.33166093 -0.18607409
0.28745759 0.29666093 -0.22107409
0.1924576 0.37666094 -0.081074089
0.2124576 0.35166094 -0.14607409
0.2124576 0.36666092 -0.10107408
0.1824576 0.39166093 -0.041074086
0.2124576 0.37166095 -0.051074088
0.23245759 0.36666092 -0.041074086
0.28245759 0.32666093 -0.081074089
0.3074576 0.32666093 -0.10607409
0.27745759 0.35666093 -0.086074084
0.28245759 0.33666092 -0.041074086
0.3324576 0.25666094 -0.22607408
0.32745761 0.26666093 -0.21107408
0.32745761 0.27666092 -0.19607408
0.3624576 0.26166093 -0.16107409
0.37745759 0.27166092 -0.086074084
0.34745759 0.27166092 -0.041074086
0.32745761 0.29166093 -0.011074088
0.35245761 0.30666092 -0.036074087
0.2224576 0.36666092 0.073925912
0.20245761 0.36166093 0.12392591
0.2074576 0.36666092 0.093925916
0.31745759 0.33166093 0.018925913
0.29745761 0.30166093 0.11892591
0.32245761 0.32166094 0.088925913
0.28245759 0.35666093 0.038925912
0.2374576 0.28166094 0.23892592
0.1774576 0.30166093 0.30892593
0.23245759 0.28166094 0.29392591
0.23245759 0.31666094 0.25392592
0.20245761 0.34166095 0.17892592
0.18745761 0.36666092 0.19892591
0.18745761 0.35666093 0.20892592
0.28245759 0.27166092 0.20392591
0.25245759 0.31166095 0.18392591
0.26245761 0.30666092 0.17392591
0.24745759 0.32666093 0.21392591
0.25245759 0.27166092 0.28892592
0.3324576 0.29166093 0.028925912
0.37745759 0.27666092 0.063925914
0.38745761 0.26166093 0.078925915
0.32745761 0.27666092 0.10892591
0.35745761 0.27166092 0.14892592
0.32745761 0.31166095 0.10892591
0.37745759 0.26166093 0.11392591
-0.1225424 0.27666092 0.35892591
-0.1075424 0.30666092 0.3339259
-0.062542401 0.28666094 0.3689259
-0.042542402 0.25666094 0.39392591
-0.0225424 0.26666093 0.35392591
0.052457601 0.27166092 0.34892592
0.052457601 0.26666093 0.38892591
0.17245761 0.26666093 0.34892592
0.4874576 0.031660933 -0.10107408
0.49745759 0.031660933 -0.031074088
0.4874576 0.091660932 -0.051074088
0.49745759 0.026660934 0.028925912
0.49745759 0.026660934 0.058925912
0.4874576 0.081660934 0.06892591
0 0 0 1 0 0 0 1 0 0 0 1 0 0 0 0 0 1021 1 0 0
